0.56543911 0.21454650 -1.12741721 217 216 217
0.53140920 0.21500701 -1.12491059 243 242 240
0.49749815 0.21525908 -1.12202406 235 236 234
0.47212654 0.20284724 -1.09618497 214 215 214
0.81823945 0.20299280 -1.13364661 246 247 245
0.78446943 0.20311326 -1.13052988 248 248 248
0.75151378 0.20246989 -1.12606227 247 247 245
0.71770865 0.20244533 -1.12267053 245 247 243
0.68314964 0.20305222 -1.12038732 111 122 144
0.64132559 0.21099734 -1.13113749 86 78 35
0.60590261 0.21296370 -1.13131654 219 220 221
0.57169652 0.21369505 -1.12930179 243 245 245
0.53786969 0.21395451 -1.12643993 213 213 218
0.50393039 0.21428519 -1.12370050 240 241 236
0.47807518 0.20281589 -1.09964705 253 255 254
0.82365066 0.20262426 -1.13637078 247 248 246
0.78988689 0.20279735 -1.13335645 248 248 248
0.75630790 0.20275456 -1.12995684 247 247 245
0.72266519 0.20268446 -1.12649965 247 247 245
0.68866789 0.20285755 -1.12346208 225 229 237
0.64738792 0.21026635 -1.13322759 118 107 45
0.61186224 0.21237707 -1.13366020 241 240 229
0.57826746 0.21247292 -1.13051808 247 247 247
0.54399681 0.21329868 -1.12867332 238 243 241
0.51006335 0.21369195 -1.12605357 244 245 240
0.48389611 0.20292354 -1.10334122 253 253 251
0.82858253 0.20260996 -1.13969696 248 248 246
0.79468513 0.20296413 -1.13700950 248 248 248
0.76112700 0.20299149 -1.13374674 248 248 246
0.72805101 0.20251369 -1.12958992 248 249 247
0.69414753 0.20267665 -1.12654567 246 249 246
0.65364593 0.20932686 -1.13494098 75 61 23
0.61817944 0.21139497 -1.13529325 242 239 224
0.58387405 0.21233106 -1.13365006 247 248 244
0.55035996 0.21233863 -1.13035476 246 248 246
0.51615775 0.21312559 -1.12844408 248 249 246
0.48463514 0.21014363 -1.11977339 249 249 245
0.83317107 0.20283914 -1.14342701 248 250 249
0.79984397 0.20281923 -1.14010251 249 249 248
0.76683187 0.20245904 -1.13617682 249 249 247
0.73252833 0.20312399 -1.13402903 248 248 246
0.69920093 0.20287013 -1.13027000 248 249 243
0.65928990 0.20898223 -1.13769388 94 80 19
0.62423307 0.21067870 -1.13738918 239 239 227
0.59023154 0.21132392 -1.13523459 245 246 242
0.55702758 0.21100336 -1.13136375 247 248 246
0.52375573 0.21060687 -1.12734485 247 247 246
0.48892865 0.21218097 -1.12683535 248 249 245
0.46548480 0.19666654 -1.09568620 182 183 173
0.83788747 0.20294923 -1.14693177 252 253 251
0.80531216 0.20240998 -1.14272261 249 249 247
0.77160925 0.20268565 -1.13991308 250 250 248
0.73806822 0.20277059 -1.13676596 249 249 247
0.70457286 0.20274132 -1.13341153 247 249 245
0.66458017 0.20896214 -1.14100230 211 205 106
0.63107884 0.20912772 -1.13800848 245 246 241
0.59671056 0.21017319 -1.13656020 248 248 246
0.56328762 0.21014524 -1.13321555 249 249 247
0.52970123 0.21020788 -1.13002241 247 247 245
0.49486578 0.21186960 -1.12967038 250 251 246
0.46741372 0.20268375 -1.10993874 246 248 244
0.84318352 0.20260119 -1.14963138 240 240 242
0.80950385 0.20299423 -1.14704335 249 249 247
0.77668583 0.20263994 -1.14315867 250 250 248
0.74327266 0.20269132 -1.13996530 249 249 247
0.70943564 0.20305592 -1.13730919 248 248 246
0.67008996 0.20870382 -1.14387751 248 249 244
0.63671160 0.20882171 -1.14081061 250 243 182
0.60321039 0.20899290 -1.13783002 247 248 245
0.56949246 0.20933747 -1.13514876 249 249 247
0.53596652 0.20938224 -1.13193202 247 247 245
0.50211096 0.20975935 -1.12929738 249 249 247
0.47320199 0.20280665 -1.11359966 254 254 254
0.85558063 0.19691008 -1.14316773 134 137 139
0.81444842 0.20296031 -1.15027809 249 249 247
0.78121626 0.20302242 -1.14712572 250 250 248
0.74835718 0.20269400 -1.14329004 250 250 248
0.71497810 0.20272404 -1.14006436 249 249 247
0.68149018 0.20277798 -1.13687181 248 250 245
0.64523864 0.20555502 -1.13842762 228 214 63
0.60950029 0.20803344 -1.13948345 245 246 240
0.57577312 0.20842761 -1.13689470 249 249 247
0.54201865 0.20880401 -1.13427031 249 249 247
0.50844049 0.20888674 -1.13112211 250 250 248
0.47934735 0.20236534 -1.11623967 254 254 254
0.81991881 0.20249760 -1.15276217 249 250 245
0.78665191 0.20264024 -1.14975774 248 248 246
0.75331020 0.20278698 -1.14675367 252 252 250
0.72039515 0.20248663 -1.14296949 249 249 247
0.68673962 0.20277411 -1.14019322 248 248 246
0.65084153 0.20526308 -1.14124417 224 211 53
0.61586893 0.20697933 -1.14096570 244 243 237
0.58249784 0.20699936 -1.13772559 248 248 246
0.54830593 0.20791739 -1.13605607 248 248 246
0.51420140 0.20874661 -1.13423157 247 247 245
0.48475197 0.20295006 -1.12068295 254 254 254
0.82405221 0.20305663 -1.15697885 247 249 244
0.79134357 0.20284551 -1.15338349 249 249 247
0.75805229 0.20303577 -1.15046704 252 252 250
0.72486430 0.20307630 -1.14728606 249 249 247
0.69233567 0.20241857 -1.14288962 249 249 247
0.65667462 0.20471990 -1.14361131 225 213 51
0.62198013 0.20618951 -1.14290309 238 240 229
0.58821064 0.20671105 -1.14054704 248 248 246
0.55496490 0.20656854 -1.13702488 248 248 246
0.52050108 0.20787233 -1.13603508 248 248 246
0.48589465 0.20946831 -1.13556707 249 249 247
0.46280745 0.19355863 -1.10413170 134 137 130
0.82915008 0.20284784 -1.15986621 250 251 248
0.79674190 0.20245928 -1.15598035 248 248 246
0.76346904 0.20269030 -1.15314305 252 252 250
0.73041493 0.20267487 -1.14987648 250 250 248
0.69744992 0.20249420 -1.14631629 248 248 246
0.66254199 0.20412606 -1.14588022 226 213 56
0.62856168 0.20489365 -1.14395452 245 246 242
0.59531420 0.20484626 -1.14061058 245 245 243
0.56063628 0.20639491 -1.14004493 248 248 246
0.52657795 0.20726877 -1.13830614 248 248 246
0.49289259 0.20764631 -1.13569605 249 250 245
0.46513033 0.19901741 -1.11719739 220 226 219
0.83499396 0.20205295 -1.16174579 248 248 247
0.80235362 0.20188791 -1.15825045 248 248 246
0.76815027 0.20294434 -1.15682960 250 250 248
0.73501825 0.20309013 -1.15385294 250 250 248
0.70210010 0.20297390 -1.15041947 249 249 247
0.66787750 0.20403713 -1.14900923 242 242 217
0.63379711 0.20499086 -1.14741325 247 247 239
0.60244244 0.20296270 -1.14064598 241 241 239
0.56752396 0.20475733 -1.14050150 245 245 243
0.53305525 0.20613676 -1.13964391 245 246 242
0.49984038 0.20590246 -1.13596606 245 245 243
0.46827009 0.20305198 -1.12767804 254 254 254
0.84102255 0.20110935 -1.16336668 208 208 211
0.80823302 0.20109212 -1.16013002 248 248 246
0.77452850 0.20176315 -1.15805566 249 249 247
0.74081171 0.20243764 -1.15598631 248 248 246
0.70767027 0.20257640 -1.15299869 249 249 247
0.67416739 0.20299810 -1.15049052 248 249 244
0.64064932 0.20339710 -1.14793944 225 212 65
0.60809612 0.20269835 -1.14348638 239 240 236
0.57455653 0.20295477 -1.14067400 242 242 240
0.53984261 0.20460886 -1.14028883 241 242 237
0.50603342 0.20518446 -1.13803053 242 242 240
0.47440314 0.20253915 -1.13012743 254 254 252
0.81414247 0.20026368 -1.16194677 241 243 240
0.78083211 0.20063961 -1.15937591 249 249 247
0.74750614 0.20099276 -1.15676236 250 250 248
0.71414119 0.20134068 -1.15413511 249 249 247
0.68116003 0.20127583 -1.15079713 249 249 247
0.64764845 0.20165634 -1.14821482 228 213 55
0.61364907 0.20251864 -1.14645886 238 238 230
0.57996058 0.20303786 -1.14411092 241 241 239
0.54716372 0.20242250 -1.13979220 242 242 240
0.51211011 0.20460182 -1.14032209 243 243 240
0.48017380 0.20252150 -1.13343024 254 254 254
0.46011540 0.18119413 -1.09278750 168 168 156
0.82078212 0.19885516 -1.16277957 240 240 237
0.78712475 0.19952029 -1.16069984 248 248 246
0.75344086 0.20020068 -1.15864491 249 249 247
0.71919227 0.20138502 -1.15744662 248 248 246
0.68674850 0.20089686 -1.15339899 248 248 246
0.65441579 0.20015442 -1.14890218 225 213 53
0.62001121 0.20144701 -1.14788437 232 233 219
0.58563548 0.20277846 -1.14693987 241 241 239
0.55233020 0.20288509 -1.14388418 242 242 240
0.51921344 0.20264679 -1.14022279 241 243 240
0.48450655 0.20450896 -1.14020610 243 245 242
0.46096680 0.18924344 -1.11029518 159 165 160
0.82667363 0.19802821 -1.16458821 246 248 244
0.79325473 0.19852877 -1.16223502 247 247 245
0.75936401 0.19940865 -1.16052032 248 248 246
0.72587788 0.19993949 -1.15821540 248 248 246
0.69297081 0.19990033 -1.15493822 248 248 246
0.65978092 0.20005441 -1.15198231 225 210 50
0.62611282 0.20064372 -1.14976501 242 243 236
0.59261721 0.20101827 -1.14717710 238 238 236
0.55832291 0.20230538 -1.14615798 241 241 239
0.52482903 0.20263529 -1.14348936 243 243 241
0.49147704 0.20269847 -1.14035368 243 243 241
0.46303859 0.19513315 -1.12393427 198 205 203
0.83300048 0.19685656 -1.16581309 252 253 252
0.79929066 0.19760692 -1.16388226 247 247 245
0.76622641 0.19781119 -1.16103148 248 248 246
0.73262334 0.19844067 -1.15889370 248 248 246
0.69916993 0.19891781 -1.15649629 247 247 245
0.66575003 0.19933182 -1.15398836 215 206 124
0.63172895 0.20033735 -1.15248656 244 246 241
0.59811217 0.20092493 -1.15027177 240 240 238
0.56485200 0.20106554 -1.14728749 240 240 238
0.53089273 0.20201313 -1.14568722 241 241 239
0.49793664 0.20160478 -1.14174485 235 239 238
0.46598884 0.19947803 -1.13480878 252 254 253
0.83835804 0.19642597 -1.16827083 238 236 238
0.80568963 0.19638640 -1.16502380 241 241 240
0.77217436 0.19698489 -1.16283929 248 248 246
0.73907620 0.19720089 -1.16000891 247 247 245
0.70469749 0.19855177 -1.15909064 247 247 245
0.67124408 0.19906247 -1.15675473 245 247 243
0.63827008 0.19904733 -1.15352154 225 213 92
0.60463959 0.19966221 -1.15135527 237 239 235
0.57062173 0.20071691 -1.14994061 240 240 238
0.53709573 0.20119429 -1.14753771 242 242 240
0.50402343 0.20101023 -1.14399207 223 227 226
0.47115904 0.20035928 -1.13962877 253 255 252
0.81221712 0.19506013 -1.16598630 239 239 238
0.77851331 0.19582319 -1.16407871 246 246 244
0.74513924 0.19629937 -1.16168964 247 247 245
0.71071082 0.19772005 -1.16088867 247 247 245
0.67838687 0.19716817 -1.15676177 248 248 246
0.64449739 0.19807726 -1.15509748 224 210 51
0.61140054 0.19813991 -1.15199518 235 236 230
0.57704705 0.19957858 -1.15123367 238 238 236
0.54384744 0.19967365 -1.14817953 239 239 237
0.50976396 0.20085967 -1.14699197 236 238 236
0.47801593 0.19870776 -1.14005744 254 254 254
0.81792605 0.19438064 -1.16802287 231 231 229
0.78517526 0.19438934 -1.16486120 245 245 243
0.75137717 0.19523740 -1.16309595 246 246 244
0.71782416 0.19587225 -1.16097391 245 245 243
0.68513191 0.19566518 -1.15743268 242 242 240
0.65163332 0.19617110 -1.15508604 221 207 47
0.61752921 0.19730383 -1.15379930 227 228 215
0.58389211 0.19794875 -1.15168715 238 238 236
0.55066729 0.19807029 -1.14868093 240 240 238
0.51677239 0.19898850 -1.14703155 237 239 236
0.48441979 0.19771421 -1.14161849 245 246 245
0.45872313 0.18562084 -1.11753941 151 152 150
0.82415944 0.19327855 -1.16935062 244 245 241
0.79131377 0.19338655 -1.16635978 245 245 243
0.75781673 0.19399559 -1.16419768 245 245 243
0.72468108 0.19426328 -1.16146350 245 245 243
0.69122159 0.19478977 -1.15915787 245 245 243
0.65736163 0.19569641 -1.15749049 222 207 43
0.62410653 0.19597441 -1.15476274 240 239 235
0.58945960 0.19778186 -1.15462291 237 237 235
0.55692333 0.19715899 -1.15036106 238 238 236
0.52314305 0.19796550 -1.14852309 239 239 237
0.48940125 0.19872779 -1.14661014 245 245 245
0.46155965 0.19036931 -1.12903237 222 229 225
0.83015311 0.19235927 -1.17097640 249 251 249
0.79734886 0.19246197 -1.16798329 245 245 243
0.76426047 0.19274712 -1.16528654 245 245 243
0.73129821 0.19287276 -1.16231859 245 245 243
0.69721723 0.19399369 -1.16100955 244 244 242
0.66423941 0.19405222 -1.15792108 215 202 78
0.62966621 0.19572330 -1.15754104 240 243 238
0.59643495 0.19599670 -1.15480947 224 224 222
0.56325406 0.19614524 -1.15186119 232 232 230
0.52965230 0.19675201 -1.14968574 236 236 234
0.49564683 0.19790280 -1.14843690 212 223 221
0.46531695 0.19352669 -1.13773119 224 226 223
0.83704424 0.19073576 -1.17143750 242 242 244
0.80418128 0.19088262 -1.16851950 241 241 239
0.77071279 0.19148839 -1.16635585 244 244 242
0.73691183 0.19237763 -1.16466188 244 244 242
0.70351744 0.19290030 -1.16235805 243 243 241
0.66900849 0.19450545 -1.16186333 241 242 240
0.63600487 0.19462967 -1.15889180 241 232 152
0.60372394 0.19386780 -1.15442109 213 215 212
0.56906891 0.19573754 -1.15438080 234 234 232
0.53609055 0.19562358 -1.15098977 225 225 223
0.50189173 0.19706172 -1.15022945 214 234 235
0.47173378 0.19255608 -1.13933456 253 255 252
0.84625012 0.18732715 -1.16897094 145 147 161
0.81037843 0.18981761 -1.16990399 230 230 230
0.77757341 0.18988198 -1.16684878 242 242 240
0.74326670 0.19121087 -1.16588175 243 243 241
0.71015209 0.19148904 -1.16317427 242 242 240
0.67629176 0.19245046 -1.16160131 241 241 237
0.64304918 0.19279397 -1.15899682 219 205 54
0.61022323 0.19262677 -1.15553045 213 213 211
0.57569718 0.19434607 -1.15523195 203 203 201
0.54242700 0.19461602 -1.15249491 207 207 205
0.50905943 0.19494599 -1.14985418 179 186 186
0.47872674 0.19071919 -1.13945901 254 254 254
0.45605904 0.17319638 -1.10632205 173 174 167
0.81698662 0.18841785 -1.17073512 232 232 230
0.78328705 0.18923974 -1.16893101 241 241 239
0.75008303 0.18963361 -1.16642058 241 241 239
0.71736437 0.18954271 -1.16310334 242 242 240
0.68354225 0.19043791 -1.16141653 240 240 238
0.64988285 0.19118291 -1.15948057 216 196 48
0.61710441 0.19096285 -1.15593004 225 224 219
0.58228612 0.19299912 -1.15615702 230 230 228
0.54912949 0.19314015 -1.15320587 235 235 233
0.51566374 0.19360584 -1.15079689 175 176 173
0.48455328 0.19059289 -1.14248753 246 246 244
0.45771229 0.18011361 -1.12143862 163 172 167
0.82384092 0.18682164 -1.17124426 235 235 233
0.78945249 0.18820995 -1.17036843 240 240 240
0.75685263 0.18809927 -1.16703153 241 241 239
0.72337973 0.18870294 -1.16486549 241 241 239
0.69027323 0.18893760 -1.16208625 241 241 239
0.65706408 0.18921924 -1.15937996 214 199 49
0.62439334 0.18886083 -1.15560102 232 232 221
0.58898324 0.19152510 -1.15686834 229 229 227
0.55564499 0.19189602 -1.15430641 227 227 225
0.52185190 0.19281596 -1.15266514 172 172 170
0.48839068 0.19328797 -1.15026879 241 243 238
0.46065551 0.18475133 -1.13259780 176 189 187
0.83101517 0.18497419 -1.17134535 241 241 240
0.79630142 0.18660903 -1.17086720 239 239 239
0.76296455 0.18713605 -1.16858053 239 239 237
0.72963864 0.18763173 -1.16623998 240 240 238
0.69611180 0.18829417 -1.16417229 238 238 236
0.66269487 0.18883634 -1.16190457 210 195 56
0.62816316 0.19055259 -1.16158664 236 237 233
0.59671283 0.18887085 -1.15561128 224 224 222
0.56213963 0.19067252 -1.15543914 195 195 193
0.52835673 0.19159365 -1.15380013 215 215 213
0.49426636 0.19297963 -1.15294600 233 238 233
0.46491748 0.18717068 -1.13994122 197 199 197
0.83878845 0.18266112 -1.17069387 238 238 238
0.80294997 0.18517476 -1.17163920 236 236 236
0.76881552 0.18639046 -1.17048049 236 236 234
0.73624718 0.18623865 -1.16708231 238 238 236
0.70311564 0.18652874 -1.16440213 237 237 235
0.66806597 0.18869525 -1.16481698 236 238 232
0.63419932 0.18977213 -1.16344118 244 235 188
0.60345531 0.18735862 -1.15626597 209 211 208
0.56871122 0.18935084 -1.15640557 225 225 223
0.53456759 0.19074684 -1.15556097 221 222 218
0.50095177 0.19150841 -1.15365815 233 235 230
0.47182485 0.18545789 -1.14028239 253 255 252
0.84562719 0.18108875 -1.17125118 159 162 170
0.81015301 0.18328792 -1.17167568 228 228 228
0.77569127 0.18475914 -1.17092860 235 235 233
0.74225330 0.18538499 -1.16880631 236 236 234
0.70964772 0.18521351 -1.16537428 235 235 233
0.67479831 0.18717563 -1.16544580 234 234 232
0.64226723 0.18683738 -1.16173017 211 197 52
0.60914582 0.18702567 -1.15887570 226 226 224
0.57502103 0.18833911 -1.15788603 230 230 228
0.54149747 0.18896490 -1.15575540 227 227 225
0.50795937 0.18959290 -1.15362740 222 222 221
0.47898856 0.18336850 -1.13999391 253 253 251
0.45620498 0.16574645 -1.10708797 168 172 161
0.81751966 0.18127412 -1.17151093 229 229 229
0.78264022 0.18306839 -1.17128229 235 235 233
0.74946916 0.18344569 -1.16875386 237 237 235
0.71654004 0.18355900 -1.16579008 235 235 233
0.68263739 0.18456495 -1.16428435 235 235 233
0.64935392 0.18495500 -1.16176772 210 190 43
0.61498940 0.18650043 -1.16115570 221 220 216
0.58187956 0.18666923 -1.15827096 197 197 195
0.54846549 0.18714237 -1.15588605 231 231 229
0.51412034 0.18884259 -1.15554500 232 233 228
0.48470154 0.18343663 -1.14332271 245 245 243
0.45729676 0.17367756 -1.12372541 165 182 173
0.82486141 0.17928797 -1.17139673 227 227 226
0.78980374 0.18120021 -1.17135072 235 235 233
0.75548154 0.18257654 -1.17044616 236 236 234
0.72233069 0.18293059 -1.16788113 234 234 232
0.68853259 0.18387634 -1.16628003 234 234 232
0.65664655 0.18286747 -1.16147304 206 190 43
0.62130988 0.18543327 -1.16253352 223 223 212
0.58793908 0.18593818 -1.16020918 227 227 223
0.55456054 0.18642008 -1.15784407 228 228 226
0.52129376 0.18671304 -1.15516210 228 228 226
0.48758110 0.18758166 -1.15343547 237 238 235
0.45956916 0.17944616 -1.13664222 144 163 156
0.83245450 0.17710763 -1.17097545 235 235 233
0.79718089 0.17915928 -1.17114472 234 234 234
0.76177710 0.18145072 -1.17171633 234 234 232
0.72803104 0.18237233 -1.17007756 235 235 233
0.69475722 0.18285519 -1.16772532 234 235 232
0.66177136 0.18301404 -1.16484022 203 188 49
0.62721151 0.18481386 -1.16464233 230 230 228
0.59481585 0.18424660 -1.16055799 223 224 220
0.56165934 0.18444049 -1.15771699 226 226 224
0.52794802 0.18528998 -1.15595698 228 228 227
0.49393770 0.18658596 -1.15494061 228 228 225
0.46555787 0.17919874 -1.13944566 175 180 179
0.83938605 0.17546248 -1.17142034 231 231 231
0.80409420 0.17751157 -1.17157781 232 232 232
0.76965714 0.17894101 -1.17074835 233 233 231
0.73498553 0.18065393 -1.17038488 233 233 231
0.70129675 0.18152398 -1.16866195 234 234 232
0.66723835 0.18278420 -1.16757679 231 234 225
0.63329071 0.18398732 -1.16640353 236 232 202
0.60101408 0.18333668 -1.16219258 219 221 216
0.56851804 0.18276614 -1.15809870 226 227 222
0.53458464 0.18388933 -1.15678895 225 225 223
0.50051999 0.18525845 -1.15589094 226 226 224
0.47233072 0.17771012 -1.14017248 253 255 254
0.84682274 0.17342073 -1.17123294 148 148 155
0.81195539 0.17508441 -1.17076206 218 218 218
0.77667010 0.17719603 -1.17102218 231 231 229
0.74131399 0.17950749 -1.17161930 233 233 231
0.70780385 0.18022174 -1.16964459 233 233 231
0.67316067 0.18207437 -1.16952038 232 232 230
0.64078104 0.18164450 -1.16568542 202 185 46
0.60802072 0.18150002 -1.16230512 219 220 215
0.57460141 0.18203378 -1.16002870 223 224 219
0.54140854 0.18224478 -1.15721858 188 188 186
0.50762212 0.18320233 -1.15563619 224 224 222
0.47968668 0.17533964 -1.13943744 254 254 252
0.45611987 0.15866309 -1.10849202 173 175 162
0.81919438 0.17318028 -1.17079294 218 218 218
0.78397548 0.17520422 -1.17090273 229 229 227
0.74841267 0.17766333 -1.17172670 230 230 228
0.71418232 0.17903894 -1.17081833 230 230 228
0.68102467 0.17941332 -1.16829443 230 230 227
0.64832515 0.17926174 -1.16491151 199 181 37
0.61405343 0.18076324 -1.16421533 212 215 208
0.58058619 0.18140364 -1.16211843 219 220 215
0.54772681 0.18125206 -1.15872037 221 221 219
0.51483333 0.18101156 -1.15516627 222 222 220
0.48456958 0.17668480 -1.14485097 238 238 238
0.45727605 0.16660500 -1.12494671 180 194 183
0.82598084 0.17165077 -1.17142582 218 218 216
0.79052633 0.17386276 -1.17182958 227 227 227
0.75588769 0.17548895 -1.17130852 228 228 226
0.72122049 0.17723238 -1.17098546 226 226 224
0.68795246 0.17769974 -1.16861153 228 229 224
0.65567994 0.17709422 -1.16449642 196 180 34
0.62049294 0.17956060 -1.16536117 214 215 209
0.58757907 0.17956364 -1.16222632 218 219 214
0.55439287 0.17980868 -1.15947986 219 219 217
0.52065861 0.18072486 -1.15782952 220 221 217
0.48729432 0.18112534 -1.15533221 231 231 231
0.46040091 0.17109889 -1.13560450 59 74 69
0.83382642 0.16926521 -1.17069864 224 226 223
0.79809988 0.17165476 -1.17137337 224 224 224
0.76328909 0.17339057 -1.17101932 226 226 224
0.72779518 0.17586333 -1.17185819 224 224 222
0.69390029 0.17695236 -1.17048717 226 227 222
0.66210848 0.17590034 -1.16566122 192 173 44
0.62648958 0.17884010 -1.16728544 221 223 220
0.59421957 0.17814440 -1.16302228 214 215 210
0.56106710 0.17835486 -1.16022205 219 219 219
0.52774060 0.17872083 -1.15767074 199 199 197
0.49420273 0.17933357 -1.15552056 220 220 220
0.46564478 0.17206734 -1.14039350 165 170 171
0.84097052 0.16745555 -1.17089343 219 219 219
0.80505496 0.16997659 -1.17176700 221 221 221
0.77057034 0.17140740 -1.17092037 222 222 220
0.73571384 0.17325091 -1.17074084 220 220 219
0.70102090 0.17505187 -1.17050481 223 223 223
0.66699708 0.17628413 -1.16936386 221 224 216
0.63342899 0.17707902 -1.16752148 225 220 199
0.60003573 0.17767864 -1.16536331 211 211 209
0.56761408 0.17705852 -1.16122031 215 215 213
0.53459144 0.17703730 -1.15804052 202 202 200
0.50119644 0.17742890 -1.15552783 216 216 216
0.47285762 0.16990286 -1.14001381 254 254 253
0.84784263 0.16586769 -1.17144179 137 137 140
0.81262523 0.16778821 -1.17135429 209 209 209
0.77796555 0.16933239 -1.17068076 219 219 218
0.74276537 0.17145175 -1.17093253 219 219 219
0.70788407 0.17340750 -1.17093682 220 220 220
0.67329305 0.17520201 -1.17069483 219 219 219
0.63983577 0.17589843 -1.16869533 191 169 40
0.60652369 0.17642313 -1.16641819 208 208 206
0.57331640 0.17679119 -1.16388512 211 211 208
0.54089904 0.17607123 -1.15957892 209 209 207
0.50816774 0.17556798 -1.15561116 213 213 213
0.48005801 0.16777760 -1.13970554 248 248 247
0.82037616 0.16545993 -1.17072821 199 201 200
0.78444278 0.16806269 -1.17172337 215 215 215
0.74983072 0.16964525 -1.17111588 217 217 217
0.71516269 0.17136866 -1.17074156 213 213 213
0.67972666 0.17397481 -1.17178988 219 218 219
0.64913994 0.17161787 -1.16489065 185 166 32
0.61281788 0.17538333 -1.16781878 201 203 197
0.58005482 0.17524529 -1.16447186 207 207 205
0.54721135 0.17508739 -1.16108394 210 210 208
0.51545608 0.17327589 -1.15499759 210 210 209
0.48490989 0.16921592 -1.14521694 227 227 227
0.45735121 0.15936583 -1.12591076 75 81 74
0.82715440 0.16394413 -1.17138982 204 206 203
0.79246193 0.16546214 -1.17066216 212 212 212
0.75711358 0.16764772 -1.17100012 215 215 215
0.72198993 0.16976780 -1.17124867 213 213 213
0.68739092 0.17151207 -1.17091203 216 216 214
0.65594226 0.17003751 -1.16543531 184 164 30
0.61990660 0.17344332 -1.16777003 202 203 198
0.58657831 0.17395854 -1.16547704 202 202 200
0.55414522 0.17329729 -1.16128111 205 205 205
0.52037507 0.17426479 -1.15971053 202 202 200
0.48767248 0.17368108 -1.15562010 217 217 217
0.46004340 0.16463888 -1.13771772 58 67 64
0.83488381 0.16165102 -1.17083216 207 207 205
0.79926485 0.16391802 -1.17127562 209 209 209
0.76371890 0.16626573 -1.17186224 210 210 210
0.72933292 0.16768360 -1.17099142 208 208 208
0.69399452 0.17011899 -1.17174530 211 211 211
0.66149908 0.16976547 -1.16806793 178 157 40
0.62638682 0.17218965 -1.16882443 205 206 203
0.59301931 0.17276597 -1.16663170 197 197 197
0.56011736 0.17273128 -1.16345346 202 202 202
0.52720368 0.17259812 -1.16010797 174 174 174
0.49462891 0.17182761 -1.15572023 203 203 203
0.46639612 0.16386336 -1.13961911 160 162 157
0.84146482 0.16030198 -1.17175984 196 198 198
0.80631346 0.16216624 -1.17156410 205 205 205
0.77115679 0.16414183 -1.17155504 205 205 205
0.73668122 0.16560441 -1.17074811 204 204 204
0.70179033 0.16755199 -1.17071724 206 206 206
0.66639149 0.17016256 -1.17175293 207 205 198
0.63312161 0.17065191 -1.16942394 210 201 175
0.59926283 0.17179930 -1.16814542 193 193 193
0.56627047 0.17191893 -1.16522121 199 199 199
0.53414172 0.17079008 -1.16027975 186 186 186
0.50045872 0.17161596 -1.15847754 200 200 200
0.47341451 0.16202050 -1.13978338 254 254 252
0.84873533 0.15839481 -1.17181587 135 136 130
0.81367159 0.16015744 -1.17145336 199 199 199
0.77883923 0.16181147 -1.17093062 201 201 201
0.74327910 0.16423088 -1.17162263 201 201 201
0.70884550 0.16572630 -1.17087173 200 200 200
0.67405295 0.16767508 -1.17084694 201 201 201
0.63987237 0.16909862 -1.16999960 170 147 36
0.60638750 0.16980171 -1.16800976 189 189 189
0.57203424 0.17157394 -1.16773057 192 192 192
0.54019272 0.17016631 -1.16235662 168 168 168
0.50630391 0.17134929 -1.16113329 159 159 159
0.48069400 0.15978396 -1.13931513 241 241 241
0.48738024 0.09128660 -1.02508092 178 175 164
0.82138073 0.15786189 -1.17090070 194 194 194
0.78548193 0.16040581 -1.17176187 195 195 195
0.75046998 0.16231036 -1.17163754 198 198 198
0.71587580 0.16393083 -1.17107749 198 198 198
0.68099636 0.16593885 -1.17113853 197 197 197
0.64878047 0.16521698 -1.16688538 159 139 31
0.61334687 0.16800493 -1.16819882 190 190 188
0.57928818 0.16938239 -1.16728282 195 195 195
0.54618436 0.16960031 -1.16451764 194 194 194
0.51341367 0.16926897 -1.16086519 170 170 170
0.48468286 0.16259289 -1.14698172 211 211 211
0.45724973 0.15240818 -1.12735224 92 95 88
0.82846582 0.15609705 -1.17118144 190 190 190
0.79337233 0.15791273 -1.17089617 191 191 191
0.75810945 0.15998715 -1.17102671 193 193 193
0.72279555 0.16224706 -1.17146194 194 194 194
0.68815535 0.16398937 -1.17109728 193 193 193
0.65536261 0.16386968 -1.16780019 158 137 32
0.62005013 0.16650599 -1.16886365 181 182 177
0.58697194 0.16668731 -1.16604185 190 190 190
0.55278707 0.16822273 -1.16537499 196 196 196
0.52037203 0.16741574 -1.16096687 197 197 197
0.48809224 0.16615272 -1.15581071 202 202 202
0.46042913 0.15696430 -1.13786745 69 76 69
0.46370649 0.09012538 -1.02665854 81 74 66
0.83577001 0.15415496 -1.17119038 187 187 188
0.80035806 0.15621656 -1.17127991 185 185 185
0.76541120 0.15798324 -1.17092276 185 185 184
0.72975290 0.16053116 -1.17179847 184 184 184
0.69552308 0.16183907 -1.17074537 185 185 185
0.66224694 0.16220009 -1.16820645 149 129 39
0.62679237 0.16496426 -1.16946125 189 191 189
0.59364796 0.16522467 -1.16676724 184 184 184
0.55998397 0.16608381 -1.16502070 187 187 187
0.52685696 0.16622305 -1.16212654 197 197 197
0.49512368 0.16419739 -1.15576100 191 191 191
0.46658233 0.15653497 -1.14031589 214 215 210
0.47055462 0.08971894 -1.02949226 171 166 156
0.84271610 0.15251338 -1.17166829 158 158 160
0.80744445 0.15443724 -1.17153716 175 175 175
0.77273428 0.15596825 -1.17080677 176 176 176
0.73755944 0.15801710 -1.17089224 176 176 176
0.70257652 0.16001320 -1.17090821 177 177 177
0.66778398 0.16194993 -1.17084360 175 176 173
0.63410962 0.16278428 -1.16905427 191 181 145
0.60056597 0.16347593 -1.16704059 189 189 189
0.56717700 0.16396558 -1.16470599 188 188 188
0.53366780 0.16458178 -1.16257024 192 192 192
0.50027096 0.16501409 -1.16013968 190 190 190
0.47380486 0.15437376 -1.13998163 251 251 249
0.47750160 0.08909917 -1.03197098 100 96 95
0.81504339 0.15222514 -1.17112851 164 164 164
0.77923018 0.15469998 -1.17185402 166 166 166
0.74410558 0.15670109 -1.17185986 167 167 167
0.70982164 0.15800446 -1.17078948 167 167 167
0.67437828 0.16057736 -1.17171204 169 169 169
0.64183199 0.16017163 -1.16797519 144 119 34
0.60701782 0.16227943 -1.16818690 177 177 177
0.57437068 0.16186148 -1.16442037 178 178 178
0.54036760 0.16309398 -1.16325903 186 186 186
0.50665510 0.16398335 -1.16155696 186 186 186
0.48079965 0.15258962 -1.14025557 228 228 228
0.48372811 0.08967948 -1.03636074 41 41 42
0.82194048 0.15061766 -1.17165887 156 156 156
0.78663677 0.15262169 -1.17164719 157 157 157
0.75144374 0.15464622 -1.17168021 156 156 156
0.71643007 0.15662795 -1.17165947 157 157 157
0.68147123 0.15868884 -1.17177451 158 158 156
0.64864862 0.15857017 -1.16849053 116 94 20
0.61466914 0.15968692 -1.16713810 160 160 158
0.58098400 0.16048938 -1.16529441 165 165 165
0.54750204 0.16103172 -1.16304016 170 170 170
0.51350945 0.16227150 -1.16188991 174 174 174
0.48462740 0.15570396 -1.14832520 187 187 186
0.46264449 0.13618743 -1.11402142 52 53 50
0.82929510 0.14862716 -1.17160213 147 147 147
0.79377824 0.15078545 -1.17181969 148 148 148
0.75901616 0.15238404 -1.17118621 148 148 148
0.72359765 0.15470749 -1.17168522 149 149 149
0.68889165 0.15647292 -1.17133188 150 150 149
0.65534937 0.15709686 -1.16920733 118 94 28
0.62103176 0.15859669 -1.16845274 152 152 150
0.58828634 0.15827292 -1.16484153 152 152 152
0.55399203 0.15982699 -1.16417885 157 157 157
0.52040929 0.16050225 -1.16213500 160 160 160
0.48843315 0.15872163 -1.15619588 161 161 161
0.46143353 0.14824033 -1.13638961 47 49 44
0.45957515 0.08977395 -1.03988814 41 38 38
0.83700061 0.14635062 -1.17111230 164 164 165
0.80188149 0.14811379 -1.17071235 139 139 139
0.76584554 0.15081495 -1.17176771 146 146 145
0.73074144 0.15281731 -1.17176223 144 144 144
0.69600850 0.15457809 -1.17139459 142 142 140
0.66240799 0.15524036 -1.16932797 106 89 40
0.62795621 0.15686083 -1.16875601 140 142 137
0.59465766 0.15719920 -1.16618562 141 141 141
0.56133085 0.15751886 -1.16358161 145 145 145
0.52697587 0.15920419 -1.16312528 150 150 150
0.49547336 0.15676004 -1.15615058 151 151 151
0.46726882 0.14837378 -1.13971972 192 193 189
0.46690255 0.08840400 -1.04112935 39 37 40
0.84392321 0.14473468 -1.17163861 131 131 135
0.80878121 0.14650381 -1.17124224 133 133 131
0.77306694 0.14889097 -1.17180514 181 181 181
0.73837018 0.15047085 -1.17114043 140 140 138
0.70304799 0.15276843 -1.17159331 136 136 136
0.66891056 0.15398180 -1.17038012 133 134 132
0.63581496 0.15407884 -1.16743445 106 88 45
0.60185927 0.15512377 -1.16596198 132 132 130
0.56880116 0.15506226 -1.16276002 133 133 133
0.53420526 0.15699285 -1.16267967 137 137 137
0.50058234 0.15767109 -1.16063738 137 137 137
0.47437426 0.14641631 -1.13972867 239 239 237
0.47189984 0.09112614 -1.04885840 102 103 98
0.81646848 0.14421684 -1.17074013 130 130 128
0.78081065 0.14650208 -1.17113531 132 134 133
0.74569422 0.14842719 -1.17099214 144 144 142
0.71017832 0.15087420 -1.17166507 134 136 133
0.67641711 0.15166295 -1.16979074 132 133 128
0.64290386 0.15218085 -1.16749680 106 81 25
0.60906523 0.15305597 -1.16575658 131 130 126
0.57580972 0.15321195 -1.16289508 133 133 131
0.54109669 0.15525830 -1.16298807 145 145 145
0.50772238 0.15555233 -1.16034114 132 132 132
0.48153514 0.14438504 -1.13962579 190 190 190
0.47818872 0.09147042 -1.05278480 163 164 152
0.82303709 0.14289892 -1.17172050 130 130 128
0.78765810 0.14493012 -1.17172122 132 134 133
0.75246024 0.14691710 -1.17166686 207 205 207
0.71748769 0.14881015 -1.17148018 137 139 135
0.68439549 0.14886701 -1.16847467 133 134 129
0.65280795 0.14718288 -1.16276991 108 82 27
0.61647761 0.15075868 -1.16520107 132 131 131
0.58311319 0.15100157 -1.16247344 132 132 131
0.54822981 0.15320671 -1.16280437 199 199 199
0.51455176 0.15389866 -1.16077971 131 131 131
0.48467004 0.14865524 -1.14942932 135 135 135
0.48452327 0.09167403 -1.05647039 170 167 159
0.83040500 0.14089924 -1.17166519 133 133 131
0.79566044 0.14233190 -1.17074621 134 134 134
0.76001662 0.14467043 -1.17121696 136 135 133
0.72523457 0.14632666 -1.17065835 151 152 149
0.69229561 0.14617538 -1.16733122 136 137 130
0.65917736 0.14611733 -1.16413891 107 84 30
0.62458163 0.14767569 -1.16343844 132 132 128
0.59053451 0.14866203 -1.16185856 130 130 128
0.55568546 0.15074283 -1.16198444 162 162 162
0.52227628 0.15097684 -1.15924025 140 140 140
0.48923042 0.15056831 -1.15548444 128 128 128
0.46430492 0.13633925 -1.13000095 172 169 164
0.45472232 0.09091020 -1.05518711 161 163 152
0.83840102 0.13837612 -1.17082310 129 131 129
0.80222756 0.14101797 -1.17173040 130 130 130
0.76711106 0.14286327 -1.17144394 166 165 164
0.73382455 0.14303923 -1.16861880 176 176 170
0.69916672 0.14456016 -1.16784871 137 138 131
0.66645539 0.14405984 -1.16397953 126 117 92
0.63244075 0.14490652 -1.16217530 137 130 121
0.59769732 0.14665759 -1.16177058 133 132 130
0.56381190 0.14742529 -1.15985012 129 129 129
0.52939165 0.14894772 -1.15910435 158 158 158
0.49648136 0.14830357 -1.15498328 131 131 131
0.46782124 0.14039958 -1.13947654 137 135 132
0.46165124 0.09012008 -1.05729353 182 179 164
0.80979818 0.13882142 -1.17137825 119 119 117
0.77487057 0.14045006 -1.17075443 115 114 112
0.74124742 0.14090765 -1.16835594 184 181 176
0.70819813 0.14075112 -1.16501701 138 137 131
0.67373288 0.14201373 -1.16384351 134 132 127
0.63956040 0.14300436 -1.16225696 101 74 28
0.60572428 0.14361906 -1.16009319 132 131 127
0.57240331 0.14354962 -1.15686989 126 126 124
0.53620386 0.14735359 -1.15964890 166 166 165
0.50313663 0.14695263 -1.15591264 134 134 133
0.47453392 0.13909531 -1.14052105 196 197 194
0.46801296 0.09031212 -1.06093073 176 168 155
0.81791806 0.13615626 -1.17032623 101 101 101
0.78192145 0.13869727 -1.17107248 95 95 95
0.74867845 0.13877881 -1.16810346 163 163 154
0.71733886 0.13687122 -1.16209960 125 124 119
0.68135834 0.13960767 -1.16316295 124 118 113
0.64783806 0.13980573 -1.16035640 86 58 22
0.61449832 0.13971865 -1.15710592 119 117 112
0.57998908 0.14101356 -1.15597844 118 118 114
0.54258537 0.14635265 -1.16111243 203 203 203
0.51110005 0.14366692 -1.15383828 140 141 136
0.48170146 0.13705730 -1.14042139 122 123 120
0.47424626 0.09067017 -1.06480992 125 119 108
0.82849151 0.13138407 -1.16611767 73 75 74
0.78990686 0.13610214 -1.17012310 53 55 54
0.75362641 0.13902026 -1.17144358 187 185 186
0.72478718 0.13472342 -1.16183376 95 94 90
0.69018567 0.13595080 -1.16058683 98 89 88
0.65649241 0.13621974 -1.15788031 69 47 22
0.62160200 0.13784790 -1.15725207 102 98 93
0.58766997 0.13838100 -1.15494895 108 109 104
0.54967552 0.14438146 -1.16107535 204 204 204
0.51778674 0.14228970 -1.15473390 143 143 139
0.48718309 0.13769662 -1.14448237 119 118 116
0.47986409 0.09202564 -1.07022297 184 182 170
0.83855259 0.12709713 -1.16266680 29 31 30
0.79860085 0.13288599 -1.16825056 29 29 29
0.76069188 0.13723844 -1.17171586 182 182 183
0.73491579 0.12992865 -1.15756881 46 46 44
0.69781286 0.13358688 -1.15999365 33 33 31
0.66411841 0.13381052 -1.15721619 37 26 19
0.62949049 0.13506454 -1.15600765 44 43 39
0.59633094 0.13454896 -1.15209198 66 64 61
0.55734330 0.14165002 -1.15987432 93 93 92
0.52600592 0.13870603 -1.15222549 144 146 141
0.49390113 0.13635159 -1.14545298 111 109 105
0.48674268 0.09115076 -1.07214606 172 171 166
0.88820517 0.08904147 -1.10878527 16 18 19
0.80939388 0.12782001 -1.16362107 27 28 28
0.76809800 0.13514245 -1.17151880 191 189 190
0.74269843 0.12749511 -1.15689671 88 85 80
0.70540708 0.13127249 -1.15948379 24 25 24
0.67148209 0.13170588 -1.15702319 22 21 21
0.63781112 0.13180554 -1.15405107 18 12 11
0.60404325 0.13194054 -1.15112686 20 19 17
0.56869555 0.13407832 -1.15126634 34 34 32
0.53457344 0.13468134 -1.14905906 126 127 118
0.50811362 0.12350315 -1.12867844 72 71 68
0.49305987 0.09119099 -1.07547843 125 125 122
0.45761934 0.08980596 -1.06996155 172 169 156
0.89633477 0.08668977 -1.10842252 15 15 14
0.81789792 0.12483430 -1.16213322 28 30 29
0.77514482 0.13338971 -1.17184210 20 21 16
0.74914998 0.12637568 -1.15820980 77 77 68
0.71417534 0.12776601 -1.15718317 15 17 16
0.67969906 0.12868661 -1.15545166 22 22 20
0.64635998 0.12831891 -1.15176570 11 11 11
0.61217439 0.12884396 -1.14942884 10 11 13
0.57815599 0.12911898 -1.14670730 19 20 16
0.53903860 0.13647342 -1.15483332 115 116 110
0.51561201 0.12112755 -1.12811589 30 29 24
0.49783117 0.09372354 -1.08263993 104 103 99
0.46385980 0.09012073 -1.07372189 177 171 161
0.90359694 0.08507937 -1.10916793 12 13 14
0.82630885 0.12195146 -1.16081250 24 24 26
0.78488600 0.12915635 -1.16846049 17 16 12
0.75389576 0.12690210 -1.16198730 172 173 165
0.73185396 0.11521393 -1.14129543 9 10 7
0.68645656 0.12726486 -1.15630507 21 21 19
0.65262765 0.12746942 -1.15349078 16 16 15
0.61792207 0.12866610 -1.15217781 11 12 16
0.58449906 0.12826520 -1.14843535 20 22 20
0.54355907 0.13810813 -1.16033649 204 204 204
0.52443302 0.11680084 -1.12457061 19 18 16
0.49255630 0.11240411 -1.11459732 117 111 105
0.47003064 0.09049636 -1.07755768 179 178 174
0.87426639 0.08449954 -1.10815930 27 26 31
0.79375827 0.12575883 -1.16634941 17 18 15
0.75547647 0.13043773 -1.17024446 198 202 198
0.73887348 0.11361718 -1.14193726 38 37 35
0.69229138 0.12682563 -1.15863585 19 21 18
0.65931213 0.12613761 -1.15448213 19 17 22
0.62494278 0.12693638 -1.15256524 11 11 13
0.59141272 0.12666857 -1.14902925 19 21 20
0.55064696 0.13615513 -1.16034448 205 205 205
0.52938128 0.11825395 -1.12988532 56 57 56
0.49528968 0.11771470 -1.12586510 28 23 16
0.47690362 0.08958620 -1.07939780 60 58 59
0.87476391 0.08876330 -1.11760247 21 25 28
0.81065303 0.11509675 -1.15346456 18 18 21
0.76177126 0.12940252 -1.17164445 213 214 212
0.74373525 0.11418432 -1.14581490 17 18 17
0.69945312 0.12496603 -1.15882683 19 21 19
0.66687506 0.12382144 -1.15399098 17 17 19
0.63275081 0.12427789 -1.15155363 10 10 11
0.59867167 0.12463826 -1.14896750 18 19 18
0.55777085 0.13416511 -1.16030073 30 30 30
0.53494745 0.11873174 -1.13368618 63 65 65
0.50205171 0.11649221 -1.12708282 22 19 15
0.48327670 0.08951175 -1.08251297 152 151 149
0.88045585 0.08846676 -1.12026083 16 16 20
0.81393838 0.11684823 -1.15904653 16 17 19
0.76902843 0.12745047 -1.17167830 211 210 211
0.74768102 0.11562860 -1.15098119 77 77 73
0.71968210 0.10942495 -1.13856506 19 21 19
0.67426401 0.12171328 -1.15381956 17 18 18
0.64054847 0.12165529 -1.15060639 12 11 15
0.60752422 0.12062818 -1.14592242 13 14 14
0.57308477 0.12124491 -1.14371061 20 21 19
0.53721482 0.12389386 -1.14458466 89 88 84
0.52206182 0.09471154 -1.09696937 22 21 19
0.48965156 0.08938795 -1.08553851 155 153 151
0.45408532 0.08872277 -1.08119261 77 77 73
0.88579887 0.08845258 -1.12332356 15 13 19
0.86304331 0.07749242 -1.10390472 16 16 15
0.77645707 0.12534463 -1.17148876 24 25 20
0.75129569 0.11735255 -1.15653610 69 70 65
0.73102742 0.10335028 -1.13254189 14 14 14
0.68555915 0.11533183 -1.14726353 19 19 18
0.65001523 0.11711478 -1.14679253 12 12 14
0.61380446 0.11985207 -1.14776731 10 12 14
0.57993358 0.11976844 -1.14450240 20 20 18
0.53966069 0.12863570 -1.15478504 134 133 129
0.52531177 0.09912884 -1.10684526 26 24 25
0.49494138 0.09102350 -1.09123230 87 81 77
0.45979518 0.08992249 -1.08624196 39 40 35
0.90411156 0.07737404 -1.11013734 19 18 22
0.86705333 0.07879436 -1.10895085 21 21 23
0.78656065 0.12075508 -1.16763711 28 27 23
0.75403476 0.11988217 -1.16325569 195 196 191
0.73688942 0.10299945 -1.13506639 7 7 7
0.69383353 0.11232239 -1.14577937 18 18 18
0.65861279 0.11363423 -1.14459181 16 16 16
0.61912864 0.12023085 -1.15133834 11 13 15
0.58738452 0.11750549 -1.14410996 19 19 17
0.54385549 0.13077539 -1.16099906 204 204 204
0.53109717 0.09955847 -1.11062634 22 22 21
0.49213213 0.10582411 -1.11689937 135 127 89
0.46648812 0.08927166 -1.08844483 163 162 158
0.86992562 0.08106226 -1.11538887 25 27 25
0.83427900 0.08140963 -1.11264396 14 13 8
0.75585300 0.12324315 -1.17116737 225 225 223
0.74037081 0.10506040 -1.14115369 7 6 6
0.70324022 0.10812008 -1.14253569 20 20 18
0.66624498 0.11129236 -1.14410686 14 14 14
0.63028949 0.11350381 -1.14426374 12 13 16
0.59431010 0.11593795 -1.14476848 18 18 17
0.55025727 0.12977523 -1.16245389 206 206 206
0.53614789 0.10102975 -1.11596191 9 9 9
0.49584824 0.10961968 -1.12574506 32 19 7
0.47318494 0.08858442 -1.09058428 128 125 119
0.87262958 0.08342576 -1.12193286 24 28 35
0.84074342 0.08050442 -1.11441028 7 7 4
0.76283389 0.12155622 -1.17160273 213 215 212
0.74492097 0.10597986 -1.14552271 36 36 36
0.71473473 0.10173595 -1.13608289 20 20 19
0.67449903 0.10826421 -1.14260924 13 13 13
0.63667083 0.11261183 -1.14593792 10 12 12
0.60264641 0.11257094 -1.14273536 17 17 18
0.55842543 0.12635010 -1.16026521 24 24 23
0.53535593 0.11101019 -1.13408053 58 58 58
0.50382090 0.10649383 -1.12408912 126 119 116
0.47957581 0.08839971 -1.09347665 44 40 37
0.87625468 0.08493334 -1.12719381 15 20 30
0.84629524 0.08042204 -1.11737525 13 11 8
0.77072263 0.11900485 -1.17077088 211 210 209
0.74899566 0.10733742 -1.15051556 56 57 59
0.72224778 0.09965122 -1.13602579 20 20 18
0.68259913 0.10543662 -1.14142275 13 13 13
0.64568925 0.10857868 -1.14293671 10 10 12
0.61192983 0.10804796 -1.13899517 13 15 14
0.57293689 0.11440545 -1.14534748 18 18 17
0.53843880 0.11507344 -1.14321315 88 88 88
0.51712549 0.09505308 -1.10992825 9 11 10
0.48483032 0.09011060 -1.09921980 143 139 136
0.44933921 0.09004021 -1.09583879 176 177 170
0.88017511 0.08614445 -1.13199663 48 111 159
0.85080552 0.08126193 -1.12167239 17 20 19
0.77776253 0.11727518 -1.17115140 14 15 13
0.75182950 0.10988593 -1.15723133 48 49 45
0.72986841 0.09746319 -1.13582170 19 19 19
0.69002753 0.10337806 -1.14138424 19 19 18
0.65530664 0.10389221 -1.13898969 12 12 14
0.62231952 0.10220742 -1.13332307 10 14 14
0.58031213 0.11222804 -1.14509392 17 17 15
0.53940505 0.12202913 -1.15662336 232 232 230
0.52312922 0.09517550 -1.11321557 24 26 25
0.49025276 0.09144032 -1.10435903 163 157 148
0.45580494 0.08973861 -1.09853125 179 180 175
0.88455659 0.08692259 -1.13614762 19 29 49
0.85709637 0.08046722 -1.12357116 17 20 19
0.80719429 0.09446132 -1.14076781 9 12 7
0.75334823 0.11367047 -1.16572094 215 216 211
0.73519772 0.09767091 -1.13914156 19 19 20
0.69668752 0.10217351 -1.14260888 18 19 18
0.66281468 0.10172158 -1.13878918 12 12 11
0.62900496 0.10103810 -1.13461471 9 25 48
0.59205109 0.10430801 -1.13630617 17 17 15
0.54456568 0.12284076 -1.16079140 206 206 206
0.52843738 0.09631419 -1.11800861 23 23 23
0.49246436 0.09799796 -1.11732090 149 134 106
0.46265969 0.08869189 -1.10009038 178 180 168
0.88968277 0.08703429 -1.13931489 20 31 48
0.86292434 0.08007550 -1.12604749 18 17 32
0.81595296 0.09128720 -1.13914371 8 9 7
0.75677204 0.11550361 -1.17131591 230 231 231
0.73998469 0.09840965 -1.14322376 16 17 21
0.70473933 0.09944850 -1.14159751 19 21 20
0.66835892 0.10182625 -1.14194679 10 12 12
0.63408715 0.10182333 -1.13879251 12 13 17
0.59925586 0.10244828 -1.13656163 18 18 17
0.55099750 0.12182003 -1.16221333 206 206 206
0.53382677 0.09725946 -1.12248898 19 19 19
0.49620602 0.10182375 -1.12612033 48 37 25
0.46888015 0.08875787 -1.10331547 168 168 158
0.89333254 0.08837843 -1.14424443 30 42 64
0.86591345 0.08218575 -1.13213146 15 27 44
0.82545799 0.08744431 -1.13656414 4 7 7
0.76425713 0.11333251 -1.17105579 210 212 209
0.74475652 0.09912652 -1.14725387 9 9 15
0.71239281 0.09717458 -1.14125752 21 22 25
0.67573786 0.09980643 -1.14196944 12 13 16
0.63951898 0.10213822 -1.14225650 11 12 16
0.60625660 0.10085946 -1.13722086 17 17 18
0.55854380 0.11924946 -1.16133308 22 22 22
0.53832674 0.09946126 -1.12881649 52 52 52
0.50289178 0.10076368 -1.12758040 20 19 20
0.47543690 0.08818358 -1.10556746 66 65 60
0.87037200 0.08295214 -1.13624644 26 40 67
0.82629240 0.09162396 -1.14560628 4 10 23
0.77114344 0.11175054 -1.17165613 192 190 191
0.74864495 0.10070395 -1.15251732 46 50 58
0.71964794 0.09534019 -1.14156592 28 30 34
0.68265361 0.09831989 -1.14277768 13 15 24
0.64701164 0.09994560 -1.14202046 11 12 23
0.61340630 0.09908235 -1.13760281 18 16 21
0.57124317 0.10967237 -1.15010357 20 20 20
0.53705406 0.11003274 -1.14752376 80 81 78
0.51398766 0.09270138 -1.11861873 43 47 46
0.48089245 0.08947802 -1.11059976 153 149 141
0.44484320 0.09106654 -1.10974789 179 180 166
0.87443906 0.08403039 -1.14078975 18 91 179
0.83166611 0.09156972 -1.14849460 33 39 58
0.77891558 0.10932112 -1.17103195 27 29 41
0.75143880 0.10333377 -1.15928066 81 87 83
0.72672927 0.09369564 -1.14215374 25 27 36
0.68884146 0.09764844 -1.14477587 10 14 24
0.65460879 0.09764260 -1.14162874 24 24 40
0.62116361 0.09654361 -1.13686848 13 23 38
0.58050954 0.10491407 -1.14604902 18 19 25
0.53929323 0.11521429 -1.15815377 249 249 249
0.51944268 0.09363645 -1.12306142 8 12 13
0.48725957 0.08913815 -1.11317480 166 157 147
0.45208263 0.08920479 -1.11005306 183 182 171
0.87807584 0.08544803 -1.14579713 7 23 58
0.83842713 0.09023488 -1.14952946 12 24 48
0.80515671 0.08933258 -1.14509439 23 25 41
0.75205225 0.10807633 -1.16906452 222 223 220
0.73261380 0.09331167 -1.14457166 37 42 53
0.69515270 0.09682459 -1.14654493 42 50 61
0.66086310 0.09693348 -1.14357197 24 22 40
0.62772852 0.09551650 -1.13835764 35 88 157
0.58869147 0.10167640 -1.14425826 20 20 31
0.54433954 0.11621618 -1.16256285 201 201 199
0.52492809 0.09445781 -1.12731397 29 31 30
0.49022064 0.09445995 -1.12413859 54 44 41
0.45892087 0.08808762 -1.11146951 139 137 136
0.88106346 0.08738798 -1.15152550 9 21 48
0.84473550 0.08930576 -1.15114450 10 26 47
0.80793446 0.09177786 -1.15157068 33 38 58
0.75811410 0.10732120 -1.17086530 221 220 218
0.73857743 0.09282637 -1.14683342 41 45 50
0.70149219 0.09595770 -1.14824545 19 22 37
0.66696388 0.09638792 -1.14574623 19 25 44
0.63265193 0.09650904 -1.14279246 33 37 57
0.59589100 0.09977335 -1.14443827 29 29 48
0.55058044 0.11547023 -1.16438103 176 176 174
0.52963769 0.09639651 -1.13319349 28 28 34
0.49480137 0.09691137 -1.13079596 14 16 23
0.46486345 0.08856785 -1.11525226 114 113 119
0.88662690 0.08707309 -1.15401244 16 29 54
0.85135865 0.08808655 -1.15233970 24 41 68
0.81328219 0.09175557 -1.15447593 17 23 44
0.76534629 0.10540378 -1.17098856 209 208 206
0.74381894 0.09307063 -1.15013862 33 33 44
0.70863765 0.09420067 -1.14865232 22 27 41
0.67612016 0.09230083 -1.14277101 27 34 51
0.63843793 0.09639466 -1.14559340 9 13 33
0.60386240 0.09687269 -1.14316440 36 41 57
0.55907792 0.11155778 -1.16155243 32 30 45
0.53455210 0.09793746 -1.13845789 36 39 45
0.50220942 0.09465545 -1.13047624 28 30 45
0.47163442 0.08751768 -1.11675322 51 51 59
0.85749853 0.08729368 -1.15414000 28 47 82
0.82144970 0.08908743 -1.15358698 23 29 51
0.76871490 0.10726362 -1.17653108 141 141 148
0.74840420 0.09395957 -1.15435624 37 39 46
0.71528333 0.09298831 -1.14984727 47 50 62
0.68235219 0.09160244 -1.14472270 16 20 36
0.64552140 0.09468037 -1.14605939 5 12 30
0.61248368 0.09316438 -1.14072633 16 22 41
0.57154101 0.10223424 -1.15083897 20 19 34
0.53676164 0.10340840 -1.14945555 99 99 100
0.50821692 0.09466386 -1.13349247 24 27 41
0.47731760 0.08834821 -1.12102389 28 28 44
0.44167602 0.08972520 -1.11987138 131 130 127
0.86221105 0.08775276 -1.15771258 41 85 159
0.82657266 0.08924955 -1.15674067 22 26 49
0.77712458 0.10419089 -1.17499423 26 28 43
0.75067073 0.09716856 -1.16188002 222 225 222
0.72291303 0.09071648 -1.14951587 65 64 73
0.68831450 0.09119439 -1.14708662 30 34 45
0.65284044 0.09268773 -1.14612448 36 41 60
0.61639225 0.09551668 -1.14710832 10 26 60
0.57848710 0.10061306 -1.15141463 39 45 57
0.53933764 0.10816675 -1.15935111 249 249 247
0.51687193 0.09044838 -1.13030338 18 21 29
0.48268187 0.08965391 -1.12597263 36 39 53
0.44859704 0.08836442 -1.12089705 155 154 160
0.86907327 0.08629805 -1.15855837 60 67 82
0.83209318 0.08902335 -1.15932906 43 46 59
0.79667467 0.09043318 -1.15824246 26 30 47
0.75175142 0.10149950 -1.17096806 248 248 246
0.72987759 0.08916444 -1.15022326 142 140 143
0.69138831 0.09400541 -1.15407228 99 99 106
0.65878326 0.09233928 -1.14856648 37 36 52
0.62307078 0.09429038 -1.14827585 30 58 113
0.58686870 0.09706074 -1.14918613 30 34 49
0.54409128 0.10962272 -1.16438079 181 181 179
0.52152735 0.09253782 -1.13635290 147 151 152
0.48795778 0.09102470 -1.13099170 23 29 44
0.45483008 0.08826959 -1.12378299 104 103 120
0.86840981 0.09140784 -1.16867280 115 116 126
0.83649588 0.08979827 -1.16332448 116 119 128
0.80101973 0.09136498 -1.16246831 9 12 29
0.75924468 0.09931803 -1.17072320 202 202 202
0.73609459 0.08840066 -1.15205812 154 151 147
0.69889468 0.09181279 -1.15384364 154 152 153
0.66552764 0.09102565 -1.14960992 35 35 48
0.62924248 0.09369147 -1.15034699 120 118 127
0.59446412 0.09460217 -1.14855957 29 33 49
0.55050862 0.10863262 -1.16583204 136 137 138
0.52647555 0.09408104 -1.14157510 147 149 147
0.49499688 0.08937353 -1.13156843 22 30 47
0.46082002 0.08857030 -1.12723672 48 52 72
0.87791020 0.08762288 -1.16620970 142 141 148
0.83748335 0.09363300 -1.17162251 163 164 163
0.80893868 0.08887619 -1.16182756 23 23 38
0.76637632 0.09750682 -1.17101049 206 205 205
0.74162251 0.08834445 -1.15489554 173 171 159
0.70551205 0.09061188 -1.15503895 156 155 148
0.67200798 0.09001619 -1.15108800 31 30 34
0.63651228 0.09171629 -1.15042925 146 141 144
0.60106701 0.09347278 -1.14986002 34 38 47
0.56270862 0.09947664 -1.15545177 22 22 40
0.53148460 0.09545183 -1.14652061 162 163 157
0.50120980 0.08908272 -1.13412881 32 36 56
0.46855852 0.08568484 -1.12601614 33 40 60
0.84378183 0.09262085 -1.17305064 171 176 197
0.81292474 0.09010017 -1.16643977 50 51 57
0.76854300 0.10059541 -1.17824411 108 111 118
0.74617535 0.08927470 -1.15912318 171 168 156
0.71295017 0.08850956 -1.15494680 173 170 158
0.67920226 0.08817351 -1.15137029 119 112 109
0.63959104 0.09488070 -1.15789104 149 144 139
0.60689765 0.09334159 -1.15259480 142 142 143
0.57061136 0.09649062 -1.15404749 33 35 50
0.53584564 0.09771895 -1.15273952 134 134 129
0.50600445 0.09105295 -1.13996446 96 97 106
